//X Y Z Nx Ny Nz
768
-0.00097983 0.07416241 0.07676651 0.122285 -0.955928 0.266923
0.00860261 0.06849614 0.06941516 -0.767787 -0.599590 0.225820
0.00907977 0.06615169 0.06556062 -0.851360 -0.521441 0.057317
0.00184142 0.06884438 0.06503753 0.003929 -0.899854 0.436174
0.02496915 0.07249100 0.04931675 0.685999 0.130026 -0.715890
0.01331033 0.06968957 0.03216685 -0.673869 0.469869 -0.570197
0.01063484 0.07456332 0.03923251 -0.492361 0.442960 -0.749245
0.01037508 0.07275468 0.03736641 -0.299712 0.607438 -0.735657
0.00918441 0.07139711 0.03626094 -0.139856 0.940976 -0.308227
0.01249685 0.07027116 0.03369334 -0.690081 0.489573 -0.533016
0.00491603 0.06581395 0.03040357 0.052979 0.723087 -0.688722
0.00107955 0.07377556 0.04031494 0.272317 0.334141 -0.902327
0.00103630 0.06928647 0.03502241 -0.003962 0.888805 -0.458269
-0.00382193 0.06806739 0.03425128 -0.172048 0.750615 -0.637947
-0.00491138 0.06583333 0.03181708 0.082498 0.777218 -0.623800
-0.00748420 0.06612620 0.06150556 -0.081090 -0.902988 0.421944
-0.01165603 0.07048803 0.09298693 0.897633 -0.424156 0.119778
-0.01934198 0.06936054 0.09332629 -0.363465 -0.920499 0.143436
-0.01127589 0.06997828 0.08877235 0.952868 -0.288076 0.095156
-0.01077729 0.07228511 0.08499927 0.960441 -0.270243 0.067244
-0.01005852 0.07341792 0.08291105 0.892762 -0.435803 0.114240
-0.01123211 0.06941409 0.08651043 0.976011 -0.079800 0.202568
-0.01134396 0.06825265 0.08361692 0.902354 -0.430994 0.001302
-0.01869274 0.06800114 0.09062978 -0.477663 -0.810916 0.338014
-0.01069490 0.07208464 0.08208333 0.917790 0.105635 0.382756
-0.01088919 0.06907236 0.07961713 0.997949 -0.060067 0.022130
-0.01084144 0.06755492 0.07392670 0.936039 -0.285973 0.205064
-0.00994300 0.06785467 0.06896771 0.772214 -0.624563 0.116644
-0.03054462 0.07389259 0.05244360 -0.207555 -0.106922 0.972362
-0.01000289 0.07184424 0.03992651 -0.258484 0.794250 -0.549866
-0.01212583 0.07105415 0.03921380 0.329680 0.839043 -0.432802
-0.00758627 0.06946097 0.03633614 0.272996 0.694464 -0.665727
-0.01567966 0.07398446 0.03309946 0.949006 -0.312089 -0.044584
-0.02378512 0.07318392 0.02594028 -0.856795 0.283555 -0.430697
0.01335314 0.06526881 0.07087139 0.628750 -0.642092 0.438624
0.01007947 0.06409236 0.06732136 -0.949515 -0.235002 0.207834
0.02744392 0.06508502 0.04872355 0.792550 0.347441 0.501148
0.02944149 0.05940001 0.05033455 0.871079 0.466805 0.152693
0.03044935 0.05791300 0.04783577 0.793931 0.251125 -0.553724
0.00919652 0.06141527 0.05724010 -0.998115 0.051864 0.032812
0.00607499 0.06391030 0.02772592 -0.086230 0.700075 -0.708844
-0.00609296 0.05997540 0.05384764 0.520006 -0.204667 0.829280
-0.03448338 0.06162507 0.05223216 -0.278891 0.220030 0.934776
-0.04688000 0.06014920 0.05228004 0.115114 0.087208 0.989517
-0.02249037 0.06510734 0.01999366 -0.226749 0.373039 -0.899682
-0.02508799 0.06450582 0.02163257 -0.922420 0.298893 -0.244549
-0.00658223 0.06339291 0.02906995 0.015104 0.819719 -0.572567
-0.01293531 0.06098763 0.02755904 0.032491 0.730340 -0.682310
-0.00622477 0.05914554 0.02404599 -0.318884 0.678236 -0.662049
-0.01753906 0.06028719 0.02229313 0.907477 0.154797 -0.390542
-0.02555330 0.06312571 0.02354875 -0.977459 0.188589 0.094911
-0.02555307 0.06326514 0.02318883 -0.970708 0.234394 -0.052769
-0.02768240 0.05706422 0.03503288 -0.890269 0.354611 -0.285784
-0.06291467 0.05732998 0.04659018 0.080643 -0.510738 -0.855946
-0.05805663 0.06456359 0.04030915 -0.151577 -0.026213 -0.988098
-0.05103542 0.05700706 0.04037632 0.076018 -0.024626 -0.996802
0.02069356 0.06486689 0.01795345 -0.183403 0.496529 -0.848423
0.02051682 0.06354096 0.01720484 -0.227443 0.380050 -0.896566
0.04260145 0.05072413 0.06590604 -0.480765 0.467548 0.741798
0.04261872 0.05462806 0.04802416 -0.138848 0.886050 -0.442309
0.05109595 0.04839765 0.04930005 0.727224 0.684362 0.052863
0.03731224 0.05022557 0.04116275 0.043543 0.922319 -0.383970
0.03467316 0.04878101 0.05949975 -0.283454 0.812778 0.508965
0.01669925 0.04680004 0.05944681 0.265902 0.913948 0.306587
0.03118014 0.05403876 0.04066557 0.864915 0.492817 -0.095155
0.03603481 0.05272567 0.04835112 0.409449 0.854434 0.319834
0.03361636 0.05299388 0.04922141 0.784318 0.596203 0.171427
0.03168348 0.05258328 0.04154932 0.875302 0.427958 -0.225163
0.01267981 0.04849327 0.05905329 0.226411 0.735447 0.638636
-0.02600944 0.05432327 0.06417712 -0.226156 -0.609840 0.759571
-0.00925625 0.05046214 0.05932862 -0.090630 -0.163135 0.982432
-0.04072861 0.04906077 0.05201789 -0.000989 -0.012857 0.999917
-0.02955331 0.04906833 0.02600950 -0.935100 0.334254 0.117733
-0.06092754 0.05538246 0.04775982 -0.585674 -0.484985 0.649443
-0.06176519 0.05606820 0.04733770 -0.669148 -0.721210 0.179154
-0.05912905 0.05262097 0.04767147 -0.587385 -0.696589 0.411997
-0.05891537 0.05288405 0.04693811 -0.418164 -0.125308 -0.899687
0.01981302 0.05493102 0.01318964 0.119129 0.410645 -0.903980
0.01343998 0.05151781 0.00981857 0.026753 0.705444 -0.708260
-0.00509900 0.05301724 0.01612129 -0.261796 0.929731 -0.258966
-0.01620794 0.05269567 0.01424789 0.571848 0.817129 -0.072729
-0.00889951 0.05362897 0.01756566 -0.088444 0.598808 -0.795994
-0.01489876 0.05186920 0.01306331 0.339557 0.882849 -0.324466
-0.01084665 0.04712365 0.00957778 0.038255 0.084161 -0.995718
-0.02885385 0.04974961 0.01542557 -0.835014 0.454185 -0.310594
-0.02790945 0.04800151 0.01411912 -0.881573 0.112149 -0.458532
0.01915926 0.04487152 0.06789562 0.341904 0.909319 0.237150
0.03503664 0.04494083 0.03184628 0.888920 0.457197 -0.028156
-0.03891509 0.04398313 0.05202838 0.021354 0.019321 0.999585
-0.03164252 0.04381025 0.02939782 -0.909648 0.395438 -0.127155
0.00480149 0.04395570 0.00685036 0.217068 0.691807 -0.688683
0.05509077 0.04014727 0.06236154 0.905911 -0.416746 0.075151
0.02827126 0.04047026 0.06712532 0.319968 0.838160 0.441712
0.01380412 0.03905274 0.05288095 -0.199664 -0.979419 -0.029536
0.00395333 0.04110672 0.05819438 -0.058927 -0.997475 -0.039642
0.00644570 0.03867917 0.03772990 -0.309091 -0.562128 0.767121
0.00067759 0.03728713 0.02488315 0.043842 -0.997664 0.052396
0.00344460 0.03735175 0.02416515 -0.066530 -0.978594 -0.194751
-0.00978198 0.04068047 0.06935334 0.237200 -0.661333 0.711600
-0.00680900 0.04028227 0.06221473 0.092079 -0.995539 0.020582
-0.02016745 0.04337101 0.05968207 -0.481214 0.757132 0.441797
-0.02405937 0.04013122 0.06136560 -0.573161 0.819387 -0.009575
-0.02366939 0.04182184 0.05838439 -0.517988 0.524693 0.675563
-0.02622822 0.04153937 0.05754813 -0.081065 -0.094766 0.992193
-0.03352504 0.03859062 0.05718775 -0.514193 -0.034280 0.856989
0.00626020 0.03816560 0.00579649 -0.107726 -0.730471 -0.674394
0.04383998 0.02921051 0.06226035 0.711727 -0.498376 0.495042
0.05772747 0.02833768 0.05036118 0.253532 0.967267 0.010814
0.05326066 0.03432823 0.04353306 0.964803 -0.133389 -0.226632
0.05484724 0.03048362 0.05046331 0.882410 0.223939 0.413769
0.05157346 0.03609938 0.03963847 0.641241 -0.294103 -0.708740
0.01823718 0.03667129 0.02572821 -0.792428 -0.514998 0.326856
0.00960120 0.03664900 0.03441395 -0.157888 -0.985926 -0.054969
0.01024406 0.03643999 0.02476964 -0.047579 -0.890404 -0.452678
-0.03397732 0.03018834 0.06807722 -0.788934 0.524362 0.320355
-0.03581594 0.03531168 0.05703897 -0.496135 0.289543 0.818545
-0.03529075 0.03197232 0.05783053 -0.300151 0.288438 0.909238
-0.01150455 0.03550351 0.03015819 -0.705922 -0.700002 0.108034
-0.01399062 0.03564768 0.02594599 0.137216 -0.989995 -0.032886
0.03235829 0.02984640 0.00584166 0.323060 0.267511 -0.907783
-0.00423423 0.03677542 0.01955288 0.406424 -0.913474 0.019602
0.13563591 0.02256980 0.08772934 -0.239108 0.955095 0.174989
0.14217409 0.02340792 0.08774754 -0.011361 0.998756 0.048543
0.15031695 0.02449959 0.08679917 0.642635 0.688189 0.336773
0.14743619 0.02395467 0.08639365 -0.117990 0.977451 0.175122
0.14590909 0.02432263 0.08309341 0.084152 0.968377 0.234872
0.14025654 0.02081465 0.09571528 -0.059929 0.156286 0.985892
0.13393255 0.02018747 0.09483115 -0.351014 0.142903 0.925401
0.13518938 0.02241725 0.08999755 -0.154874 0.981682 0.110973
0.13365357 0.02244346 0.08679217 -0.232116 0.963474 0.133564
0.12510513 0.01991161 0.08610544 -0.574832 0.335184 0.746472
0.12417582 0.01978528 0.08331097 -0.989514 0.035299 0.140058
0.14160545 0.02328719 0.07802713 -0.083535 0.994620 -0.061259
0.13411248 0.02312906 0.08031034 0.003772 0.939235 -0.343255
0.15391006 0.02204870 0.07814966 0.911303 0.115127 -0.395314
0.12894121 0.02235853 0.07919053 -0.103765 0.868498 -0.484710
0.12405904 0.01996768 0.08144874 -0.975066 0.193515 -0.108618
0.03456875 0.02329939 0.05618064 -0.864687 -0.501327 -0.031418
0.03295588 0.02068268 0.02421400 -0.792424 -0.604783 -0.079387
-0.02765065 0.02630786 0.05281436 0.828792 -0.557653 -0.046122
-0.03937615 0.02728032 0.05775204 0.134000 0.174075 0.975573
-0.02698717 0.02646533 0.04754851 0.670674 -0.725176 0.155936
-0.02855964 0.02288163 0.02585291 0.655403 -0.585002 0.477724
-0.02740191 0.02019215 0.02410370 0.820355 -0.115522 0.560064
0.04964492 0.01853423 0.00984034 0.398010 0.183808 -0.898778
0.12393913 0.01375351 0.06154576 -0.102818 0.994629 -0.011905
0.12777705 0.01228100 0.09361432 -0.546041 0.807525 0.223031
0.12630163 0.01790272 0.08839022 -0.806626 0.017987 0.590788
0.12487697 0.01783030 0.08595553 -0.949085 -0.071214 0.306866
0.12444390 0.01665505 0.08402707 -0.971239 0.235855 -0.032657
0.12352268 0.01701191 0.07684685 -0.873627 0.200237 0.443488
0.13290586 0.01455902 0.06170965 0.275518 0.959911 0.051581
0.13187920 0.01457355 0.06246406 -0.094561 0.957264 -0.273319
0.12662518 0.01743113 0.06946581 -0.728131 0.254293 -0.636522
0.12385103 0.01412533 0.06691810 -0.211198 0.953754 -0.213888
0.12135895 0.01401601 0.06710242 -0.128739 0.989315 -0.068429
0.12380572 0.01389553 0.06311608 0.156920 0.981660 -0.108262
0.10216679 0.01123008 0.07772711 0.023285 0.992396 0.120862
0.11080571 0.01481706 0.06783437 -0.499933 0.856408 -0.128968
0.11484805 0.01386364 0.06414170 -0.003555 0.970622 -0.240582
0.08323183 0.01731247 0.06580178 0.001384 0.695951 0.718088
0.14099935 0.01180475 0.04378368 0.830642 0.447510 -0.331315
0.13735799 0.01534639 0.05835662 -0.274360 0.959629 -0.061952
0.13286777 0.01456933 0.06027981 -0.308962 0.947744 -0.079522
0.13230918 0.01435450 0.05763932 0.106560 0.985384 -0.132901
0.13902724 0.01552062 0.05228641 -0.074162 0.995106 -0.065307
0.13689779 0.01483793 0.05228594 -0.371222 0.921891 -0.110956
0.13817753 0.01440875 0.04477363 -0.163761 0.809792 -0.563399
0.13922973 0.01378885 0.04392453 0.728369 0.479496 -0.489451
0.13838322 0.01362169 0.04357314 -0.267967 0.906403 -0.326539
0.08632360 0.00901749 0.03297613 -0.305189 -0.801715 -0.513920
0.04005642 0.01529888 0.06996572 -0.546737 -0.186284 0.816319
0.04013724 0.00946101 0.06737188 -0.971196 -0.083530 0.223163
0.03978405 0.01143693 0.06528248 -0.984498 -0.174946 -0.012578
0.06957928 0.01145260 0.05885698 -0.426711 -0.881476 0.202282
0.05031575 0.01172072 0.05893313 -0.187555 0.053758 0.980782
0.04010993 0.00950801 0.06120812 -0.983345 -0.153233 0.097731
0.07492279 0.00933329 0.03225954 0.023888 -0.695574 -0.718057
0.07118212 0.00900748 0.03150359 0.389427 -0.166897 -0.905810
0.06863081 0.01266608 0.02494420 0.161834 -0.933658 -0.319519
0.07709201 0.01134260 0.02740662 0.031793 -0.833539 -0.551546
0.07550429 0.01145468 0.02722487 -0.028870 -0.952710 -0.302507
0.06621541 0.01073870 0.02738447 0.773746 -0.630194 0.064598
0.03739919 0.01101250 0.02501525 -0.396648 0.480835 0.781964
-0.04204263 0.01411297 0.06088316 -0.972234 0.188869 0.138166
-0.04393405 0.01615486 0.05795148 -0.187531 0.056140 0.980653
-0.04547757 0.01107665 0.05797053 -0.080697 0.129817 0.988249
-0.03047730 0.01443641 0.02409958 -0.271875 0.051368 0.960961
-0.04925946 0.01017350 0.04211479 -0.987164 0.131228 -0.091032
0.04990038 0.00935402 0.00957858 0.049992 0.094428 -0.994276
0.03756602 0.00937395 0.00656809 -0.935587 -0.199387 -0.291412
0.15768811 0.00756754 0.08036956 0.996124 0.081294 0.033602
0.15727139 0.00240542 0.07604700 0.897725 -0.107839 -0.427155
0.09265597 0.00562360 0.08062530 -0.911363 0.403077 0.083348
0.09223779 0.00229518 0.07953707 -0.940953 -0.338135 -0.016464
0.09232985 0.00496008 0.07300594 -0.961434 0.214383 0.172295
0.09286539 0.00864096 0.07045452 -0.530700 0.256790 0.807723
0.09156369 0.00177977 0.06983360 -0.836559 -0.337449 0.431621
0.12018219 0.00101252 0.08532833 -0.306438 0.742832 0.595228
0.15799363 -0.00032063 0.08058281 0.931557 0.340613 -0.127217
0.11810461 -0.00056408 0.08372308 -0.435783 -0.326447 0.838765
0.08720839 -0.00012500 0.06780313 -0.445503 -0.022608 0.894995
0.14359717 0.00419716 0.04951981 0.981784 -0.189911 0.005755
0.14225174 0.00863722 0.04428222 0.942348 0.276514 -0.188470
0.13626623 0.00528942 0.04337490 0.004005 -0.489940 -0.871747
0.12598969 0.00396873 0.04163277 0.041894 -0.204683 -0.977931
0.07889911 0.00781363 0.05894285 -0.148954 -0.636440 0.756807
0.08361158 0.00237405 0.06034033 -0.254358 -0.207611 0.944563
0.09610172 0.00760725 0.03558889 -0.124041 -0.948311 -0.292096
0.09123327 0.00537115 0.03854956 0.192841 0.263960 -0.945059
0.08732057 0.00858560 0.03434621 -0.360081 -0.932050 -0.040298
0.05938997 0.00744007 0.05406018 0.581331 -0.049265 0.812174
0.06611504 0.00547553 0.02447073 0.998287 -0.057373 -0.011475
0.03707331 0.00600653 0.02488095 -0.743604 0.009729 -0.668549
0.03627556 0.00747333 0.02633186 -0.971181 0.102031 -0.215398
0.03726442 0.00651347 0.02670233 -0.993241 0.036704 -0.110113
0.07709809 0.00032172 0.05826253 -0.508974 0.370016 0.777196
0.06554491 0.00079686 0.02216488 0.684575 0.095283 -0.722688
0.03931946 0.00099266 0.03935551 -0.797669 -0.223718 0.560066
-0.04653148 0.00339975 0.05788380 -0.290816 -0.018563 0.956599
-0.03505985 0.00802671 0.04947719 0.964314 -0.261194 -0.043326
-0.03378345 -0.00065326 0.02510113 0.754181 0.023787 0.656236
-0.04997162 0.00086933 0.04506325 -0.978295 -0.084273 -0.189308
0.03955898 0.00177408 0.00528892 -0.330556 -0.021530 -0.943541
0.13514984 -0.00600145 0.09482864 -0.421510 -0.725658 0.543830
0.12919776 -0.00846525 0.08476400 -0.071609 -0.992290 0.101161
0.15805770 -0.00298553 0.07941305 0.987252 -0.119416 -0.105228
0.15753950 -0.00426724 0.07995135 0.861479 -0.507777 -0.004019
0.15499772 -0.00604278 0.07789046 0.175423 -0.983993 -0.031367
0.15033945 -0.00647689 0.08093139 0.152551 -0.735570 0.660049
0.12667789 -0.00665066 0.07976132 -0.908265 -0.418297 0.009122
0.12246593 -0.00418380 0.07985941 0.104366 -0.988542 0.109056
0.13211097 -0.00935584 0.07876372 0.014289 -0.915795 0.401391
0.13010205 -0.00892742 0.07901905 0.155569 -0.956020 0.248645
0.13933612 -0.00179349 0.06348436 -0.070184 -0.958330 -0.276908
0.13239968 -0.00570233 0.06605315 -0.004064 -0.540548 -0.841304
0.13226341 -0.00542364 0.06595452 -0.244269 0.115026 -0.962861
0.10448421 -0.00470143 0.08244368 0.420835 -0.905269 0.058186
0.11234346 -0.00498549 0.07801491 -0.308959 -0.401186 0.862319
0.11169966 -0.00623971 0.06776676 -0.031123 -0.880912 0.472255
0.11222556 -0.00593010 0.07077591 0.071222 -0.996014 0.053691
0.09358096 -0.00218878 0.07310180 -0.952557 -0.255891 0.164788
0.09543196 -0.00799132 0.06550895 0.176015 -0.978545 -0.107086
0.08232409 -0.00684309 0.06585617 -0.290826 -0.132681 0.947531
0.08971602 -0.00842288 0.04653902 0.254741 -0.965532 -0.053434
0.08306456 -0.00887811 0.03790590 0.364710 -0.927253 -0.084785
0.09433587 -0.00159284 0.03613830 0.145677 0.977407 0.153148
0.08644630 -0.00203191 0.03403880 0.023195 0.992981 -0.115977
0.08207440 -0.00213489 0.03335274 -0.212090 0.931228 -0.296364
0.04735054 -0.00123512 0.06423589 0.995675 -0.092844 0.003202
0.06756286 -0.00353773 0.05826121 -0.409698 0.888413 0.207052
0.06591392 -0.00357305 0.05737159 -0.283626 0.886893 0.364661
0.07411660 -0.00284549 0.03058518 0.009556 0.831382 -0.555620
0.06919643 -0.00338779 0.02809028 0.228675 0.951235 -0.207026
0.06965204 -0.00379687 0.02691490 0.218402 0.938991 -0.265700
0.03392397 -0.00883503 0.02576617 -0.933508 0.246401 -0.260481
0.03558042 -0.00378827 0.02585487 0.050549 -0.338286 -0.939685
-0.04361454 -0.00706217 0.05820628 -0.530691 -0.040183 0.846612
-0.03240107 -0.00955785 0.03385941 0.972845 0.228407 -0.037464
-0.03326648 -0.00521916 0.02557951 0.765343 0.260374 0.588604
-0.03232697 -0.00551887 0.02437659 0.759330 0.354570 0.545617
0.07876725 -0.01141316 0.05102650 0.910639 -0.412736 0.019654
0.07814887 -0.01018779 0.05472347 -0.048953 -0.960229 -0.274889
0.07850526 -0.01094717 0.05354592 -0.068839 -0.189609 0.979444
0.05948381 -0.01644982 0.04981661 0.323418 -0.798189 0.508228
0.06269651 -0.01630447 0.03606775 0.342178 -0.569215 -0.747602
0.05836947 -0.01496687 0.02059136 0.426475 -0.783221 -0.452420
0.03527797 -0.01072083 0.03789305 -0.587385 0.411997 0.696589
0.03032340 -0.01899254 0.02454547 -0.800420 0.407457 0.439667
-0.04064630 -0.01168145 0.06759413 -0.757624 -0.637604 0.139523
-0.04370417 -0.01900106 0.03096082 -0.920461 -0.367907 -0.131891
-0.04681101 -0.01075897 0.02883919 -0.966731 -0.246373 -0.068784
-0.04964925 -0.01363932 0.04671560 -0.866475 0.498053 -0.034113
0.05428585 -0.01667819 0.01931067 0.440006 -0.559554 -0.702349
0.04640017 -0.01801342 0.00952486 0.178550 -0.050845 -0.982616
-0.02623645 -0.01805435 0.00534763 0.294030 0.251001 -0.922250
0.03901428 -0.02333532 0.06158978 0.831675 -0.546283 0.099455
0.04846155 -0.02782378 0.05499522 0.933273 -0.317563 0.167795
0.05055677 -0.02272305 0.04890570 0.524283 -0.649033 0.551256
0.05008734 -0.02359660 0.04154763 0.142128 -0.985341 -0.094354
0.05507487 -0.02050245 0.03703474 0.512862 -0.855706 0.068850
-0.03006320 -0.02671496 0.06982251 -0.395494 -0.405024 0.824342
-0.02937131 -0.02916199 0.06497423 -0.802139 -0.592636 0.073183
-0.04071948 -0.02524632 0.05591206 -0.898133 -0.227097 0.376542
-0.01595702 -0.02660177 0.03735574 0.420949 0.430626 0.798351
-0.02336914 -0.02367112 0.04016959 0.636908 0.593215 0.492386
-0.01808208 -0.02472102 0.03701593 0.330052 0.632465 0.700752
-0.02237696 -0.02228133 0.02940748 -0.349892 0.919353 -0.179904
-0.02483932 -0.01976294 0.02444641 0.451860 0.442073 0.774851
-0.01682074 -0.02515980 0.02366391 0.489838 0.840812 -0.230422
-0.05148061 -0.02113800 0.04801618 -0.890909 0.254333 0.376294
0.04705518 -0.02397112 0.01094988 0.765776 -0.333717 -0.549746
0.02709963 -0.02973206 0.07050475 -0.031374 0.078975 0.996383
0.02769159 -0.03416467 0.06240562 0.633115 -0.773496 0.029480
0.02506199 -0.03556696 0.06856137 0.683626 -0.654398 0.323139
0.04833134 -0.02926856 0.04970407 0.966731 -0.246373 0.068784
0.04889699 -0.03088605 0.04838903 0.979798 -0.192610 0.053835
0.04782899 -0.03538795 0.04930332 0.978594 -0.066530 0.194751
0.04824821 -0.02984995 0.04345369 0.983869 -0.170852 0.053023
0.00346409 -0.03383499 0.03050475 -0.064270 0.997772 0.017911
0.01141283 -0.03126046 0.02437552 -0.274853 0.595779 0.754654
-0.00124150 -0.03232032 0.02625817 0.886555 0.344688 0.308563
0.00378218 -0.03286933 0.02476362 -0.015328 0.678605 0.734343
-0.02707457 -0.03053583 0.06918752 -0.499119 -0.647006 0.576423
-0.02541514 -0.03614454 0.05779739 0.156670 0.233030 0.959767
-0.04368107 -0.03248911 0.05241997 -0.090310 -0.302343 0.948911
-0.00815115 -0.02941578 0.02381462 0.228493 0.918283 -0.323339
0.01762516 -0.03085615 0.00531133 -0.000983 -0.004916 -0.999987
0.01542015 -0.03066288 0.00557758 -0.119154 0.416339 -0.901368
0.00134276 -0.03273167 0.00545946 0.009223 0.441388 -0.897269
0.01863255 -0.03880965 0.06828759 0.348093 -0.924054 0.157970
-0.01044229 -0.04014082 0.06096036 -0.280360 -0.946724 0.158465
0.01233329 -0.04112343 0.06352796 0.053350 -0.982827 0.176648
0.02904790 -0.04545661 0.04726115 -0.122261 -0.864460 0.487607
0.02821603 -0.04426013 0.05056753 0.143219 -0.988783 0.042393
0.02624878 -0.04410429 0.05084510 0.060629 -0.995424 -0.073858
0.02708385 -0.04760514 0.04563588 -0.114118 0.318187 0.941135
0.00468926 -0.04283853 0.05808623 0.035370 -0.737104 0.674853
0.02776105 -0.04112926 0.03017078 0.501505 -0.864237 -0.039846
0.02565544 -0.04216788 0.03094911 0.447678 -0.894028 -0.017269
0.02823255 -0.04091252 0.03182305 0.425086 -0.896775 -0.122865
0.02911066 -0.04505832 0.03499391 0.148667 0.181704 -0.972050
0.03069608 -0.04035375 0.03092638 0.093427 -0.990787 -0.098041
0.03001974 -0.04038588 0.03064782 0.144796 -0.988087 0.052127
0.02803541 -0.04087945 0.03082565 0.781177 -0.622964 -0.040966
0.02506044 -0.04248095 0.03071458 0.280356 -0.940505 0.191968
0.02121857 -0.04442323 0.02680047 0.048542 -0.992292 -0.114018
0.00530061 -0.04776745 0.02829533 0.109910 -0.960745 -0.254733
-0.01242289 -0.04511366 0.05640635 0.132020 -0.585930 0.799535
-0.04166162 -0.04657827 0.05166130 -0.191700 -0.081808 -0.978038
-0.04121264 -0.04194558 0.04646721 -0.506223 -0.849574 -0.148199
-0.04460241 -0.04154392 0.04622339 0.189265 -0.902980 -0.385753
-0.03320219 -0.04368097 0.02303035 -0.978878 -0.204176 -0.010500
-0.06448762 -0.04436827 0.04845715 -0.391902 0.620097 0.679627
-0.06446426 -0.04443406 0.04879040 -0.859044 0.509320 0.051348
-0.06158362 -0.04243072 0.04311983 -0.737558 0.670902 0.076799
0.04645103 -0.04188592 0.01874461 0.999671 0.025168 -0.005034
-0.03205140 -0.04723504 0.01930146 -0.966331 -0.256473 -0.020664
0.04590131 -0.05013854 0.04077629 0.971820 -0.227867 0.060354
0.04651980 -0.05150853 0.04725869 0.921608 -0.032774 -0.386735
0.04534865 -0.05527590 0.04021014 0.979026 -0.197723 0.049131
0.03752255 -0.05271386 0.02272077 -0.967648 -0.066175 -0.243473
0.03755296 -0.05462118 0.02266827 -0.927338 -0.051446 -0.370671
0.03467109 -0.05074060 0.04863846 -0.958821 -0.198148 0.203467
0.03510076 -0.05753080 0.05038200 -0.987374 0.143724 0.066604
0.01801683 -0.05459126 0.04600190 -0.045332 -0.034790 0.998366
0.00565706 -0.04848387 0.05134772 0.044470 -0.977133 0.207926
-0.00229724 -0.04996168 0.04946652 0.104792 -0.360648 0.926797
-0.00243758 -0.04996208 0.04948053 0.339095 -0.240131 0.909589
-0.00545644 -0.05253763 0.05070101 -0.295089 0.352010 0.888263
-0.00135110 -0.05718818 0.05017016 0.398049 0.060311 0.915379
0.03577581 -0.05564900 0.03353905 -0.756149 0.088873 -0.648336
0.02856760 -0.05173723 0.03508332 0.340264 -0.184957 -0.921961
0.02365057 -0.05115784 0.03436432 0.190680 -0.172520 -0.966374
0.02398537 -0.05112149 0.03438265 0.156162 -0.224400 -0.961903
0.01106546 -0.04833453 0.03217524 0.211424 -0.190148 -0.958720
0.00498791 -0.05525794 0.03039370 -0.184102 -0.980677 -0.066181
0.01383416 -0.05644119 0.03306539 0.095161 -0.005346 -0.995448
-0.00122884 -0.05030467 0.02916290 0.471680 -0.538349 -0.698354
-0.00971739 -0.05455584 0.05104071 0.018629 -0.108488 0.993923
-0.00989230 -0.05556532 0.05096922 -0.511987 -0.151973 0.845443
-0.01350100 -0.05475926 0.05048180 -0.229960 0.045019 0.972158
-0.01474156 -0.05659535 0.05037361 -0.223479 0.052511 0.973293
-0.03303202 -0.05483865 0.05584814 0.442001 -0.335040 0.832095
-0.03500015 -0.04901980 0.04281804 -0.997469 -0.062942 -0.033071
-0.03665835 -0.05132322 0.04683306 -0.894177 0.169013 -0.414586
-0.03107354 -0.05133146 0.03648838 -0.925065 -0.323420 0.199136
-0.06734879 -0.05283661 0.05247381 -0.033607 -0.079140 0.996297
-0.08088461 -0.05558471 0.04946919 -0.829419 0.546629 0.115157
-0.08024191 -0.05469237 0.04787055 -0.422490 0.876331 0.231399
-0.06821364 -0.05460093 0.03943873 0.706481 0.289962 -0.645605
-0.07144499 -0.05384617 0.03991039 -0.370747 0.800879 -0.470255
-0.07334254 -0.05398959 0.04018304 -0.130950 0.987433 -0.088480
-0.07462617 -0.05431989 0.03993698 -0.618142 0.762325 -0.191732
-0.07878513 -0.05543444 0.03923998 -0.121038 0.969576 -0.212772
-0.00914738 -0.05465844 0.01444259 0.382487 -0.485775 -0.785955
0.04479948 -0.05860383 0.03383999 0.992248 -0.109998 0.057834
0.03649443 -0.06538828 0.02647567 -0.217716 -0.503944 -0.835847
0.02041879 -0.06054708 0.04641762 0.175255 0.302211 0.936992
0.00906558 -0.05905576 0.04716288 0.012433 0.603705 0.797111
0.02042702 -0.06437770 0.04701945 -0.043880 0.001020 0.999036
0.01405741 -0.06402612 0.04606278 0.168415 -0.072861 0.983020
0.01304601 -0.06580591 0.04617752 0.221397 -0.465385 0.856971
0.03439182 -0.06063165 0.03443518 -0.656993 0.035322 -0.753069
0.02474663 -0.05825311 0.03376422 0.060303 0.304081 -0.950736
0.02818619 -0.06558770 0.03487577 -0.153575 -0.894182 -0.420538
0.01249531 -0.06547875 0.03099820 0.311403 -0.039402 -0.949461
0.00657582 -0.06222727 0.03096998 0.259932 0.025627 -0.965287
0.00906765 -0.06430221 0.03026803 0.266333 -0.845185 -0.463389
0.00167803 -0.06430932 0.03101471 -0.092075 0.022748 -0.995492
0.00155850 -0.06384265 0.03100418 -0.128197 -0.201815 -0.970998
-0.00670381 -0.06230235 0.04999238 0.281824 -0.350416 0.893188
-0.00792138 -0.06287163 0.04960651 0.396018 -0.822253 0.408741
-0.04249582 -0.06332485 0.05232037 0.372707 0.462285 0.804600
-0.03430485 -0.06146012 0.04093996 -0.127431 0.014405 -0.991743
-0.03940729 -0.06344914 0.04091691 0.017081 -0.013062 -0.999769
-0.00776909 -0.06095643 0.02031327 0.821272 -0.195830 -0.535876
-0.02702585 -0.06551320 0.03563058 -0.974046 -0.192296 -0.119399
-0.08456398 -0.06118721 0.03714644 -0.366227 0.273549 -0.889409
-0.08485882 -0.06044042 0.05589515 -0.781889 0.424268 0.456779
-0.08428158 -0.05780102 0.04722350 -0.645240 0.687498 -0.333185
-0.05057608 -0.06675547 0.05251781 0.009222 -0.042012 0.999075
-0.06023422 -0.05860344 0.04047937 0.202425 0.213149 -0.955820
-0.07890785 -0.06107960 0.03683366 -0.111763 0.053059 -0.992317
-0.08262625 -0.06031903 0.03685765 0.009386 0.061531 -0.998061
0.03603929 -0.07493956 0.02883926 -0.327377 -0.218728 -0.919229
0.03263948 -0.07000794 0.04709214 -0.891899 0.093517 0.442460
0.03219305 -0.07623956 0.05087831 -0.371613 0.571334 0.731766
0.02294523 -0.07215056 0.04673603 -0.410967 0.098245 0.906341
0.02422495 -0.07455454 0.04679959 0.009549 -0.833478 0.552469
0.02159700 -0.07489534 0.04662479 0.162970 -0.686910 0.708234
0.01959579 -0.07460877 0.04662060 -0.425008 -0.631678 0.648345
0.01846004 -0.07551129 0.04617230 0.056320 0.132180 0.989624
0.01676601 -0.07599219 0.04641787 0.070173 0.118489 0.990473
0.00632474 -0.06786557 0.04690599 0.193402 0.242091 0.950782
-0.00060513 -0.06856367 0.04823358 -0.096466 0.373638 0.922545
0.00102467 -0.06972884 0.04880055 -0.115221 0.062744 0.991356
0.00468921 -0.06852503 0.04791995 0.566473 0.745017 0.352219
-0.00298512 -0.07027007 0.04820295 -0.166349 0.301078 0.938978
-0.00085575 -0.07435332 0.04889890 -0.056676 0.270784 0.960970
0.00407023 -0.06786089 0.03094092 0.258049 -0.176986 -0.949782
0.00033804 -0.07083702 0.03136583 -0.145587 0.081671 -0.985969
-0.00934475 -0.06883986 0.04890150 0.066097 -0.011541 0.997746
-0.01387421 -0.07215541 0.05069757 0.815721 0.115695 0.566758
-0.02897950 -0.07061188 0.05247645 0.022971 -0.000999 0.999736
-0.04130049 -0.06881323 0.05337004 0.453279 0.587089 0.670720
-0.02610550 -0.07285580 0.03937011 -0.564468 -0.140747 -0.813367
-0.02528892 -0.07306722 0.03842056 -0.918860 -0.306287 0.248768
-0.00843905 -0.06787900 0.02340408 0.047686 -0.464599 -0.884236
-0.05220498 -0.06742938 0.05262251 -0.027180 -0.005033 0.999618
-0.04871099 -0.07597160 0.03953510 0.031203 -0.001007 -0.999513
-0.06193567 -0.07572582 0.03686545 -0.105413 -0.011954 -0.994357
-0.06655858 -0.07216836 0.03681252 0.005163 -0.052667 -0.998599
0.04273057 -0.08207554 0.04947606 0.980927 0.003450 0.194345
0.01023057 -0.08207033 0.03262228 0.274966 0.131505 -0.952418
0.01310567 -0.08158096 0.04938722 -0.324267 0.924656 0.199658
0.02900131 -0.07900918 0.03570517 0.052178 0.041530 -0.997774
0.02842989 -0.08432134 0.05269445 -0.012524 0.691579 0.722192
0.01224108 -0.08250772 0.05082231 -0.177907 0.841696 0.509801
0.01659678 -0.08359139 0.03266433 0.216924 -0.078093 -0.973060
0.00773869 -0.08444809 0.03225645 0.165986 0.035983 -0.985471
-0.02007534 -0.08594041 0.03142191 -0.889333 -0.298444 -0.346435
-0.05751125 -0.08297527 0.05179754 0.001384 -0.693136 0.720806
-0.05071231 -0.08342762 0.05028555 0.135205 -0.935510 0.326404
-0.05690363 -0.08443789 0.04793839 0.046576 -0.998794 -0.015525
-0.06579983 -0.08447738 0.04864846 0.047241 -0.948641 0.312809
-0.07705765 -0.08473969 0.04828643 -0.251685 -0.899297 0.357658
-0.07143243 -0.08374786 0.03791969 -0.001381 -0.752490 -0.658602
-0.07276186 -0.08396512 0.03868269 -0.215188 -0.939884 -0.265167
-0.07394614 -0.08327402 0.03714250 0.098357 -0.676757 -0.729606
0.02419370 -0.09478386 0.07792553 0.416703 0.904010 0.095523
0.01597956 -0.09049226 0.06480980 -0.077313 0.915550 0.394704
0.01262085 -0.09008114 0.06226664 -0.134263 0.983386 0.122167
0.01291291 -0.09078415 0.06441362 -0.383499 0.860947 0.334214
0.00851789 -0.09054296 0.06205434 -0.191400 0.782445 0.592576
0.00208736 -0.09374507 0.06844304 -0.220603 0.973821 0.054846
0.03302588 -0.08948699 0.05373467 -0.048998 0.996288 0.070775
0.02203330 -0.08741195 0.05804550 0.144621 0.892068 0.428135
0.00981619 -0.08969992 0.06011168 -0.207899 0.936243 0.283245
-0.00412893 -0.08910426 0.05300747 -0.446731 0.767460 0.459822
-0.00759829 -0.09519833 0.06882480 -0.633120 0.736807 0.237224
-0.00906429 -0.09503421 0.06649690 -0.599618 0.723117 0.342871
-0.01384848 -0.09353560 0.05114421 -0.172289 0.421311 0.890401
-0.03286593 -0.08843585 0.04856721 -0.393944 -0.700528 0.595037
0.03220094 -0.09834509 0.06450538 0.759618 -0.049881 0.648454
0.01400711 -0.09648597 0.08093736 0.253438 0.923547 0.287803
0.00728994 -0.10253166 0.03355410 0.037819 -0.802610 -0.595304
0.02500562 -0.10328606 0.03754439 0.064097 -0.801930 -0.593969
-0.01428910 -0.09570221 0.05338596 -0.179808 0.901917 0.392701
-0.01722828 -0.09865727 0.05432207 -0.999889 -0.014865 0.000991
-0.01513988 -0.09896573 0.03128188 -0.479641 -0.150161 -0.864521
-0.01440855 -0.10025562 0.03100055 -0.384076 -0.359197 -0.850566
0.03663570 -0.10796210 0.06370220 -0.302981 0.840578 0.449033
0.00708576 -0.11369396 0.07863243 -0.346693 -0.371347 0.861339
0.03805926 -0.11221902 0.05796145 0.977262 -0.179598 0.112713
0.03839787 -0.10804489 0.04816819 -0.214361 0.512339 -0.831600
0.03666443 -0.10895360 0.04820925 -0.001038 -0.065416 -0.997858
0.03800672 -0.10988285 0.04825326 0.507027 -0.749875 -0.424984
0.03426360 -0.10576864 0.06054637 0.610436 0.579999 0.539416
0.03554055 -0.10611374 0.04727283 -0.305523 -0.950087 -0.063167
0.03594195 -0.10592481 0.04661604 -0.074219 -0.918966 -0.387288
-0.01449867 -0.10928429 0.04845716 -0.609982 -0.281898 0.740578
0.02362432 -0.12097328 0.07355408 0.210635 -0.915617 0.342461
0.02905202 -0.11804489 0.06687505 -0.032411 -0.759554 -0.649637
0.03340374 -0.11719358 0.06605423 0.614082 -0.788330 0.037941
0.02478620 -0.11906704 0.06758907 0.035541 -0.917471 -0.396211
0.00027985 -0.12324104 0.06959613 0.205925 -0.875554 -0.437036
-0.00676535 -0.11544612 0.06825891 -0.830300 0.475125 0.291306
-0.00991833 -0.11819776 0.05140270 0.559237 -0.825267 -0.078665
-0.01130898 -0.11847057 0.05140593 -0.460478 -0.872715 0.162264
-0.00778767 -0.04089072 0.06175219 -0.300050 -0.951660 -0.065676
-0.01509397 0.14753103 0.09556746 0.198266 0.979457 0.036804
-0.03446186 0.01834364 0.06974965 0.490388 -0.141150 0.859998
-0.04429386 0.02754956 0.05323596 -0.560152 0.124968 0.818910
0.07311276 0.01811034 0.02475199 0.508131 0.451856 -0.733232
-0.03441307 -0.00074763 0.03255864 0.994304 0.090189 -0.056786
0.03015019 -0.02920275 0.07053085 0.010291 -0.174950 0.984524
0.05820246 -0.00045180 0.05474593 0.709525 -0.098423 0.697773
-0.02007255 0.11285729 0.09984072 -0.991784 -0.104097 0.074355
-0.00349971 -0.04811338 0.05273486 -0.095166 -0.988079 0.121013
-0.04521427 -0.06702912 0.05309255 0.064674 0.639551 0.766024
0.01747047 -0.10505683 0.08114287 0.289673 -0.337209 0.895757
0.04172780 -0.00091301 0.07005857 -0.453473 0.061650 0.889135
0.02132906 0.08483092 0.04005723 0.982203 0.179338 -0.055820
0.04279029 -0.00070370 0.00582782 0.539479 -0.048790 -0.840584
0.01808066 0.08482790 0.12223078 0.803876 -0.339061 0.488693
-0.03460199 -0.01966665 0.07010940 -0.244071 -0.205892 0.947649
-0.03587942 0.05630718 0.05190688 -0.029903 -0.027841 0.999165
0.02594935 0.07502133 0.04992002 0.580268 -0.804697 -0.125503
-0.04519982 -0.02915477 0.04075917 -0.111848 -0.027685 -0.993340
-0.03067355 -0.01968955 0.07014218 0.250121 0.167193 0.953670
0.02424646 -0.11443271 0.07652123 0.420669 -0.179039 0.889372
-0.01890229 0.04677948 0.05838208 -0.190229 -0.022174 0.981489
-0.01428132 0.10375830 0.06072132 0.995155 0.093056 -0.031749
0.01219691 0.08425848 0.03033694 -0.938428 0.001256 -0.345472
0.15225732 0.01819896 0.08913123 0.723237 0.527947 0.445196
0.00935582 0.03722070 0.00688719 -0.148667 -0.972050 -0.181704
0.05888892 -0.00031596 0.01983280 0.366289 0.079161 -0.927128
-0.04393699 -0.06698756 0.05294203 0.066542 0.556408 0.828241
0.01036150 0.13209552 0.09639245 0.399456 -0.252839 0.881197
-0.02138344 0.02769403 0.01479851 0.715368 -0.698635 -0.012550
0.14055750 -0.00073791 0.09670071 0.067194 -0.206468 0.976143
0.01746697 -0.10523849 0.08107546 0.293952 -0.338716 0.893792
-0.01649776 0.12242702 0.06947321 0.939542 0.327436 -0.100236
-0.02980479 -0.00918479 0.02331804 0.896441 0.387532 -0.214970
-0.05959093 -0.07330985 0.03725911 0.585403 -0.194115 -0.787161
0.04217591 0.00758312 0.07024561 -0.308529 -0.028964 0.950774
0.01629062 0.03514245 0.01564240 -0.379920 -0.922279 0.071151
0.00796090 0.05329301 0.01344427 0.072044 0.991467 -0.108638
0.03237303 -0.11227902 0.05121503 0.174510 -0.928392 -0.328078
0.05473801 -0.01664750 0.05862272 0.133185 -0.674905 0.725785
0.00922479 0.11176827 0.09785822 0.899132 0.435412 0.044485
-0.02099936 -0.03553119 0.06208594 -0.661519 -0.747617 -0.058834
-0.03340062 -0.00989508 0.05695150 0.950641 0.306699 0.047087
-0.01741599 0.06978101 0.02310559 0.757681 0.117137 -0.642027
0.11453672 0.01280903 0.04618034 0.039860 0.989658 -0.137800
-0.01827137 0.04836378 0.00976069 -0.150112 0.371774 -0.916106
-0.05904309 -0.06556585 0.03772258 0.820113 0.205409 -0.534062
-0.03403841 -0.04039385 0.01527323 -0.961866 -0.233615 -0.142257
-0.00975357 0.07752640 0.09288043 0.778152 -0.531069 0.335328
-0.04330451 -0.04144721 0.05727273 -0.027126 -0.001005 0.999632
0.05403890 0.00796038 0.05951824 -0.087237 -0.049692 0.994947
0.06843376 -0.00332131 0.05812294 -0.241675 0.943224 0.227865
0.01520765 0.08144251 0.11968248 0.106749 -0.872498 0.476814
0.00162463 -0.05425929 0.03063647 -0.311779 0.276649 -0.908988
-0.04905185 0.03242444 0.04478140 -0.880723 -0.218324 -0.420311
0.03546438 -0.01300949 0.00542723 -0.445866 0.199973 -0.872476
0.03955538 -0.10160014 0.03989238 0.762246 -0.602597 -0.236343
0.05628089 0.02895573 0.05191948 0.503087 0.853061 -0.138531
0.00881767 0.06613131 0.06321689 -0.742318 -0.663255 0.095169
-0.00294610 -0.09647077 0.07404419 -0.044377 0.899646 0.434358
0.01042546 -0.08003169 0.04774544 0.097176 0.390072 0.915642
-0.03578907 -0.08655690 0.04559392 -0.481826 -0.867287 -0.125131
-0.01952231 0.10928923 0.10027372 -0.986894 -0.137953 0.083715
0.02426332 0.04273555 0.06241625 0.484155 0.874207 0.036823
-0.02439578 0.08284961 0.07453353 -0.969306 -0.245621 -0.010783
-0.03687379 -0.04292303 0.04002986 -0.785828 -0.400205 -0.471497
0.00979344 0.15260407 0.10275807 0.949012 0.293331 0.115474
-0.00699159 0.04034292 0.06740236 0.233950 -0.955853 0.177802
0.00359963 -0.09143621 0.03167898 0.207911 0.059577 -0.976332
0.00521637 0.11568724 0.06430983 -0.675566 0.394769 -0.622710
0.00983479 -0.03337942 0.00531493 0.066371 -0.015803 -0.997670
0.10120849 0.01516967 0.06759764 0.063024 0.983419 0.170047
0.02584846 -0.02343458 0.01372669 -0.691579 0.722192 -0.012524
-0.03408638 0.08520482 0.05237761 -0.036899 -0.043225 0.998384
-0.02304616 0.09327615 0.12530500 -0.897696 -0.113792 0.425668
-0.00186195 -0.07001399 0.04857700 -0.249235 0.336686 0.908033
-0.02573228 0.09827141 0.04033995 -0.572097 0.682179 -0.455342
-0.03195672 0.07895119 0.04069636 -0.032939 -0.058441 -0.997747
0.02597403 0.02925169 0.00768187 -0.660250 -0.750348 -0.032379
0.01074553 0.03792035 0.03650502 0.808723 -0.578492 0.106373
0.04343154 -0.01775121 0.05898771 0.728631 -0.393099 0.560865
-0.03337063 0.04034814 0.03204651 -0.956230 0.287502 -0.054461
0.02900212 0.08971237 0.06947754 0.992417 0.119179 -0.030073
0.00495797 0.17427070 0.10791466 0.513885 0.855542 0.063010
-0.03087441 0.03045767 0.07008334 -0.201894 0.044202 0.978409
0.09676714 -0.00414277 0.08559028 -0.381230 -0.638684 0.668391
0.12769942 -0.00321077 0.06157147 0.251317 -0.967630 -0.023068
0.12311693 0.01523191 0.08160633 -0.562526 0.824756 0.057803
0.14045915 -0.00415703 0.06509929 0.001042 -0.069839 -0.997558
-0.01612966 -0.10283224 0.04915487 -0.926060 -0.269685 0.263977
-0.02980141 -0.02140280 0.07025167 0.175387 0.212311 0.961334
0.02522636 -0.02391149 0.01534064 -0.742825 0.656137 -0.133021
0.03281976 0.04214204 0.06509855 -0.575355 0.538235 0.615849
-0.05310880 -0.05111597 0.05731295 0.011724 -0.082069 0.996558
-0.00568288 -0.10020864 0.07568403 -0.807512 -0.288060 0.514730
-0.03424712 0.04188945 0.05504050 -0.682600 0.333969 0.650017
0.01748807 0.04563444 0.06664534 0.338319 0.939194 0.058781
-0.07671358 -0.08172011 0.03662924 0.096017 -0.205750 -0.973883
-0.05823309 0.07241880 0.05699207 0.103735 -0.129967 0.986077
-0.01852491 -0.08716891 0.03048893 -0.344055 -0.214495 -0.914122
0.00650497 -0.05152087 0.04688695 0.077409 -0.116692 0.990147
0.00324717 0.12887558 0.07497510 -0.512826 0.469675 -0.718620
0.01564599 -0.04576036 0.02022132 0.270243 -0.960441 -0.067244
-0.02009715 0.03753999 0.00765300 -0.391913 0.542775 -0.742832
0.00293321 -0.03331606 0.02525521 0.097514 0.793208 0.601092
0.15025809 0.02422548 0.07589652 -0.060132 0.973163 -0.222122
0.09673899 0.00910182 0.03336633 0.237899 -0.498821 -0.833415
0.13872282 0.01537165 0.05108000 -0.142183 0.988348 -0.054330
0.04314005 -0.07253897 0.03071455 0.919957 -0.305695 -0.245417
-0.05873834 0.06775959 0.05259084 0.400765 -0.485137 0.777193
-0.02404576 -0.02281431 0.03671174 0.305753 0.950520 0.055010
0.01357231 0.08554588 0.02943203 -0.354844 0.502562 -0.788364
0.01918013 0.09830728 0.05913360 0.683293 0.613805 -0.395416
0.03655098 0.04510279 0.06566440 -0.476068 0.549566 0.686540
-0.00608119 -0.09253664 0.06191450 -0.140046 0.924860 0.353582
-0.01385232 0.09990132 0.06190971 0.995589 0.045005 -0.082325
0.09939961 -0.00569864 0.03397099 0.372926 -0.599639 -0.708067
-0.01500517 -0.09883327 0.03118326 -0.500582 -0.148266 -0.852898
-0.04423140 0.02954800 0.05293951 -0.314042 0.063325 0.947295
0.01619858 -0.04780862 0.03314605 0.209574 -0.435498 -0.875454
-0.05116568 -0.06955223 0.04068011 -0.027180 -0.003020 -0.999626
-0.00063860 0.03735728 0.02051441 0.173040 -0.981369 0.083495
-0.03371834 0.03530590 0.05761940 0.031965 -0.025778 0.999156
0.08015817 0.00711647 0.05918949 -0.333871 -0.327828 0.883776
-0.02016623 0.17126791 0.10626535 -0.042242 0.989827 0.135859
0.01754272 -0.10050109 0.03371859 0.186818 -0.141066 -0.972214
-0.01013734 0.06570359 0.06529154 0.936392 -0.334522 0.106133
-0.03405490 -0.04260666 0.03035836 -0.942865 -0.332102 -0.026721
0.08822184 -0.00603356 0.02873416 0.431157 -0.192770 -0.881444
0.00191828 0.13739479 0.07966638 -0.390163 0.331562 -0.858976
-0.00675707 0.04272946 0.06978878 -0.020051 -0.208762 0.977761
0.05963408 -0.01679496 0.04895798 0.356516 -0.916146 0.183229
-0.03601814 0.08249706 0.05233992 -0.107791 -0.014154 0.994073
-0.03406668 0.16577198 0.10060566 -0.998267 0.053648 -0.024194
-0.03151935 0.15262392 0.12775864 -0.976073 -0.216511 0.020113
-0.07789764 0.08943688 0.05682444 -0.263330 0.171502 0.949339
0.02279224 -0.09220827 0.07218306 -0.218932 0.920087 0.324821
0.00905442 0.16532145 0.09804069 0.986312 0.164574 0.010215
-0.00102240 0.14920911 0.08814768 -0.554310 0.820379 -0.140425
-0.03235557 0.00999958 0.00530412 0.232137 0.013095 -0.972595
-0.00343546 -0.07428295 0.04869812 -0.145123 0.123172 0.981717
-0.01929090 0.10638877 0.11030377 -0.786087 0.613004 0.079330
0.04428391 -0.06628142 0.04279858 0.988929 -0.148284 0.005575
-0.01336109 0.11039158 0.11006729 0.816975 0.399729 0.415654
-0.02248053 0.04706685 0.01038484 -0.296629 0.488105 -0.820832
-0.01780988 -0.07610683 0.05414962 0.053815 -0.127096 0.990430
-0.01586828 0.06002624 0.02462965 0.628332 0.517152 -0.581165
-0.03167460 0.15385346 0.12755042 -0.994003 -0.077324 0.077324
-0.02961343 0.16903156 0.12095274 -0.291457 0.930691 0.221057
0.02124476 -0.07011693 0.04658278 -0.099294 0.890845 0.443325
0.13481677 0.02173266 0.07091160 -0.042962 0.998614 0.030388
0.01375293 -0.07650378 0.03321865 0.047440 -0.032681 -0.998339
0.01619023 0.11104599 0.06647715 0.964394 0.264333 0.008449
0.05899014 0.00032369 0.05404137 0.567361 0.043428 0.822323
-0.03567439 -0.05216296 0.04321057 -0.944992 0.293367 -0.144655
0.15158810 0.02497896 0.08175584 0.085579 0.994718 -0.056682
0.04271585 -0.07795922 0.03621003 0.982457 -0.153850 -0.105393
0.00666801 -0.04209030 0.06036905 0.076455 -0.986863 0.142325
-0.04604039 -0.06017692 0.04081803 0.050710 0.009314 -0.998670
-0.00234783 -0.03240906 0.03575176 0.958021 0.280427 -0.059638
0.02785501 -0.02516766 0.06727392 -0.713859 0.699779 0.026752
0.04014561 0.00598721 0.05009295 -0.972248 0.104125 0.209504
-0.03775387 -0.01821655 0.06359600 -0.840913 -0.538688 0.051770
-0.03221192 -0.03869532 0.05811606 -0.013323 0.037918 0.999192
-0.04708106 0.02594673 0.04205865 -0.763446 -0.035279 -0.644907
-0.05169018 0.04885617 0.04047246 -0.040785 -0.030327 -0.998708
-0.01963190 -0.05524040 0.05595773 0.930124 -0.204036 0.305351
0.00527440 -0.09719882 0.07932033 -0.126924 0.913577 0.386352
-0.04377688 0.02561198 0.03697272 -0.961234 0.172732 -0.214926
-0.02569854 0.06873853 0.06643360 -0.966523 0.241315 0.087177
-0.00942440 0.08887156 0.06401398 0.028490 0.988036 -0.151567
-0.00755645 0.10275712 0.11195850 -0.220055 0.966440 0.132548
0.01323304 -0.04215417 0.00982017 0.036970 -0.047533 -0.998185
0.01317189 0.03896234 0.03797893 -0.197138 -0.978433 0.061681
-0.04275578 0.01734383 0.05813405 -0.344966 0.148238 0.926836
-0.07034852 0.09434324 0.03623966 -0.245507 0.357234 -0.901171
-0.01561838 0.08650717 0.02939601 0.690339 0.206326 -0.693442
-0.01977763 0.03744968 0.06991282 0.109594 -0.140907 0.983938
0.01803169 -0.10992650 0.04009654 0.243673 -0.906112 -0.345811
-0.03281919 -0.07158252 0.04098494 0.068342 0.176251 -0.981970
0.04051073 -0.02027257 0.06919075 0.722506 -0.339334 0.602359
-0.04173191 -0.02331888 0.05454570 -0.908972 -0.215321 0.356941
0.04733455 -0.03347798 0.01746745 0.998413 -0.047343 0.030510
0.04734261 -0.03352264 0.01712241 0.998380 -0.053317 0.019863
-0.02812052 0.11982930 0.07612065 -0.946418 0.270989 -0.175666
-0.00695522 -0.06329583 0.02277913 0.931793 -0.092776 -0.350935
0.00159209 -0.03467653 0.06188250 -0.023857 0.998897 0.040454
0.03980720 -0.00312917 0.05211682 -0.970077 0.238543 0.045262
-0.01601225 0.06565199 0.08269283 0.123966 -0.959106 0.254457
-0.06169922 0.09376289 0.05624707 0.402493 0.687385 0.604567
-0.05311597 -0.02784330 0.05006076 -0.887284 0.340801 0.310775
-0.04854550 0.04101060 0.04071721 -0.164651 -0.062781 -0.984352
0.14803274 0.02436157 0.08009214 -0.100329 0.804089 -0.585982
-0.05892014 -0.04166489 0.05241337 -0.241457 0.275346 0.930528
-0.02949074 0.13520007 0.08964001 -0.974084 -0.185240 -0.129794
0.13092312 0.01105706 0.04611486 -0.159551 0.913533 -0.374167
0.00115690 0.04122120 0.05953515 -0.095436 -0.993655 0.059507
0.00245321 0.12826790 0.07557652 -0.837971 0.227427 -0.496066
0.03037554 -0.07884087 0.05099655 -0.717849 0.293885 0.631129
0.03692349 0.01107295 0.01764820 -0.978493 -0.189346 0.081847
-0.02782348 -0.05728817 0.02062718 -0.482788 -0.496060 -0.721693
-0.02568645 -0.03624667 0.00960495 0.075719 0.126976 -0.989012
0.04684057 0.00388631 0.06958111 0.739797 0.035363 0.671900
0.02388629 -0.04308899 0.02130638 0.442829 -0.892599 -0.084679
0.00768882 -0.03157105 0.02017799 -0.064695 0.975305 0.211174
-0.04508742 0.09576021 0.04941000 0.618029 0.715356 0.326047
-0.03644968 0.00126269 0.00567735 -0.426685 0.047110 -0.903172
0.05316456 -0.00365833 0.01138183 0.925260 -0.048837 -0.376176
-0.02509494 0.06778123 0.08323854 -0.999260 -0.021567 -0.031837
0.02521540 0.04193308 0.06655258 0.485207 0.873372 -0.042370
0.02308509 -0.02936742 0.00531196 0.050908 -0.114261 -0.992146
0.01876757 0.06527347 0.01926498 -0.805527 0.072970 -0.588049
-0.01216529 0.08787199 0.05833181 0.612056 0.612056 -0.500773
-0.06712493 -0.04644956 0.04824887 -0.704168 0.551016 0.447804
-0.02619749 0.11419666 0.04873911 -0.994627 0.096041 -0.038637
-0.01520945 0.11259385 0.06628323 0.997083 0.073582 0.020262
0.04699140 -0.03891711 0.03492664 0.995128 -0.098111 -0.009703
-0.03167593 0.15012847 0.10371920 -0.994208 -0.105860 0.018553
0.02834065 -0.08586016 0.05493525 0.125271 0.923704 0.362048
0.00450178 0.15922831 0.13347904 -0.023202 0.009079 0.999690
-0.00357595 0.04062228 0.05647137 0.131303 -0.990945 -0.028056
-0.01458156 0.12308256 0.10511582 0.947358 0.311442 -0.074277
0.09538304 0.01334456 0.03360230 0.516894 0.658325 -0.547201
0.02783192 0.09535418 0.07118271 0.989729 0.044521 0.135845
0.00802401 0.12074899 0.09507769 0.997905 0.062171 -0.017914
0.01842101 -0.08841141 0.05949079 -0.475914 0.788887 0.388797
-0.02398539 0.03104140 0.06459513 0.801942 -0.591738 0.082066
0.00534685 0.13478006 0.10367385 0.979528 0.179316 0.091488
-0.04274418 -0.05799328 0.04223047 -0.057807 0.830442 -0.554098
-0.01000690 0.10341675 0.10926950 0.427707 0.893781 0.134991
0.00083436 0.07096025 0.03697295 -0.103817 0.595119 -0.796904
0.01162013 0.14515729 0.09666449 0.980662 0.153420 0.121509
0.00832845 0.16196854 0.10612145 0.998687 -0.042786 0.028176
-0.01604624 0.04397848 0.00953417 -0.078441 0.094356 -0.992443
-0.03332627 0.16552922 0.11851117 -0.998685 0.048843 0.015588
-0.06511714 -0.05230174 0.04053800 0.061313 -0.044102 -0.997144
-0.05668558 -0.06432581 0.05261670 -0.078297 0.089644 0.992892
-0.08147832 0.08363782 0.03678374 -0.835006 0.111818 -0.538760
-0.00812803 0.17183390 0.10796079 -0.531474 0.602337 0.595588
0.06175420 -0.01647525 0.04278471 0.370633 -0.928520 0.021954
0.05144290 -0.00786706 0.00995557 0.575459 -0.190802 -0.795262
0.15526918 0.00758191 0.07275377 0.880923 0.073526 -0.467513
0.05671475 -0.01916970 0.03827927 0.550512 -0.815964 0.176465
0.01607933 0.06702331 0.02596237 -0.869823 0.187551 -0.456325
-0.00013012 0.12588488 0.10214794 -0.978503 -0.169475 0.117519
-0.05179816 -0.03247032 0.04078501 -0.155284 0.074678 -0.985043
-0.01722216 -0.09928946 0.05104050 -0.950007 -0.311662 -0.018775
-0.07989777 0.07179768 0.05151189 -0.780176 -0.625522 0.006904
0.02605957 -0.02985396 0.00605087 0.275330 -0.453756 -0.847525
0.02892992 -0.02404262 0.05680491 -0.664317 0.746472 0.038244
-0.05799766 0.11900511 0.04847279 -0.099154 0.994809 -0.022882
0.00479465 -0.06499756 0.04708201 0.069903 0.035489 0.996922
0.01774315 -0.10366736 0.03649669 0.133114 -0.734369 -0.665569
0.04154699 -0.07595756 0.02956507 0.537337 -0.250757 -0.805227
-0.00287929 0.17193785 0.12349325 -0.126549 0.916436 0.379646
0.04939412 -0.02112003 0.01753246 0.848620 -0.478203 -0.226198
-0.04178829 -0.00943841 0.05967405 -0.923326 -0.238324 0.301116
0.09173913 -0.00820809 0.06665875 0.073822 -0.987803 0.137097
-0.05992156 -0.04127561 0.05173441 -0.530887 0.365289 0.764672
0.01727293 0.06697062 0.07302340 0.122698 -0.861772 0.492235
-0.00206511 -0.08145676 0.02935989 0.525959 0.009465 -0.850457
-0.06127367 -0.07058689 0.05687459 0.091111 0.009647 0.995794
-0.00565191 0.14133078 0.08487925 -0.105908 0.124948 -0.986495
0.00014014 0.05078446 0.00958900 -0.002985 0.014924 -0.999884
0.08092058 -0.00935264 0.06370378 -0.022413 -0.905753 0.423212
-0.02678816 0.06380299 0.06645061 -0.985051 0.171957 -0.010249
0.05677877 0.02655745 0.03174184 0.418305 0.908283 0.006516
0.14383899 -0.00186998 0.09663373 0.021311 0.019281 0.999587
0.01857942 0.09441453 0.03913969 0.842288 0.488923 -0.226946
0.02953753 0.04216562 0.06170003 -0.300967 0.878704 0.370538
0.01742165 -0.04711717 0.04842583 0.335551 -0.809456 0.481857
-0.04382778 0.02491893 0.03356605 -0.934993 0.332472 -0.123490
0.04174256 -0.06678262 0.02684443 0.191617 -0.277087 -0.941544
-0.02735482 0.03671561 0.06891248 -0.581376 0.625190 0.520711
-0.05828681 0.11787587 0.05183064 -0.004123 0.619817 0.784735
-0.04937602 -0.00988990 0.04673959 -0.955440 0.052023 -0.290565
-0.01464937 0.11206128 0.07511557 0.995100 0.095031 -0.027308
